# 3D point list with one line of data per point:
#   POINT3D_ID, X, Y, Z, R, G, B, ERROR, TRACK[] as (IMAGE_ID, POINT2D_IDX)
# Number of points: 369, mean track length: 5.0351921627731722
3623 0.23738895568671267 1.8353466697724028 3.3523353342305944 206 189 177 0.18238915700989658 77 782 37 789 100 782
13896 -0.52858563029227557 0.73712699762537748 2.6795970850461255 83 133 58 0.017348198168853517 9 654 94 607
3622 0.18088254372798263 1.7809801183252107 3.0071028144379151 236 240 253 0.16370826030048818 59 820 37 778 85 1330
13895 -0.34309132222521066 0.59556778106679598 2.7022455011289921 80 114 51 0.13684028624934724 41 804 94 604
3621 -0.4007811207263639 1.6187702608702697 2.8947501882430382 72 52 26 0.13275993353808849 59 815 37 776 100 1333
13894 -0.28652213643715191 1.1733262774379012 2.5739952161308541 0 0 0 0.047585564021701915 35 1702 49 1110
3619 0.11679559629293801 1.7489770334204022 2.865979952223491 209 212 225 0.13064208286098403 59 1381 37 761 85 1315
13892 -0.33349281794001068 1.1763503314868933 2.878264116802546 253 244 158 1.2245799948420408 75 756 94 599
3618 -0.38369529664030988 1.615913313860722 2.7303806497275125 241 226 223 2.6627340241372708 34 765 37 760 82 805
3617 -0.43415364518544397 1.5781721579542223 2.7956175234160372 92 85 46 0.024810291872862957 34 762 37 755 100 741
3616 -0.69426867044454144 1.3852759196913007 2.9430203575946612 91 74 57 0.41660469760691832 59 778 37 741 100 711 82 837 85 757 61 811 76 725 60 758 27 1448 65 657 53 649 93 696 18 1086
3615 -0.70881932396627423 1.3640325345294397 2.9515286301681467 106 86 64 0.21866576801217955 59 772 37 737 82 836 43 767 61 812 41 436
13888 -0.22430576150221901 0.6021308246670265 2.6904645713047226 189 176 111 0.44287164761149428 35 1086 94 590
3614 -0.28445174172708287 1.5949890737268508 2.6672688103678182 82 160 93 0.15502242470100647 59 785 37 728 100 724 85 702 64 636 60 640 79 581 26 557 20 538 27 1009 7 541
3613 -0.24360765691359951 1.5886359114829549 2.6381333246344765 247 228 128 0.26434638680150646 59 770 37 724 100 1285 82 747 85 691 61 1320 77 1416 76 565 64 621 60 603
13886 -0.66621149644890287 1.166035352108294 2.6446253374727409 123 215 100 0.024793604246346169 41 810 94 585
3612 -0.24320571008834166 1.5875625006798799 2.6395648070988216 247 228 128 0.19064775162818592 59 771 37 723 85 690 64 622 60 604
13885 0.66017439295725089 1.566453247776681 3.465893730740671 206 186 118 1.2857955281433839 61 1244 94 580
3610 -0.8533836996887324 1.1972544661594742 2.9199673778121524 188 174 156 0.16584887406281323 59 734 37 694
3609 -0.92631971402537983 1.1486669522178465 2.9032815268084047 85 62 41 0.23199163250136673 59 720 37 687 100 1236 64 521
3608 -0.31982420649536486 1.4607745530111591 2.6111928766537043 66 120 63 0.031961980452105923 35 736 37 682
3606 -0.5934173322118842 1.3041540099137874 2.6423217653401707 92 161 79 0.021684205151639116 34 671 37 662
3605 -0.41764330527628063 1.3716193382458048 2.6028528912893178 244 237 148 0.18958349583431822 34 692 37 658 85 637
13878 -0.60807565071599534 0.45732181149910861 2.2876635317360199 172 149 119 0.36170300920339654 9 233 41 318 94 533
3604 0.039858542498759753 1.5180535423743968 2.5838712634827399 74 124 66 0.072471769737543004 35 761 37 654
13877 -0.49234211530015276 0.29016000814930576 2.2708158099009834 56 101 38 0.22237037419908967 9 229 94 530
3603 -0.14908283404198247 1.0847738580083091 3.4228709310938714 66 119 65 2.1123952731780635 95 554 37 649
13876 -0.49234211530015276 0.29016000814930576 2.2708158099009834 56 101 38 0.22237037419908967 9 228 94 529
3601 -0.20196856410409586 1.102729346602948 3.2663495323693654 71 121 66 3.0574551879326046 2 462 37 629
13874 -0.5549541732800467 0.3709931893253457 2.2339308760612067 59 110 44 0.18401931429060764 9 601 94 520
3600 -0.62723191234562103 1.2233668967830742 2.642872787161032 88 148 76 0.26395749724241696 77 750 37 621 100 559 82 770
13873 0.40136986307467942 0.86142093556423083 2.6841574820223717 94 143 77 0.01225046152428285 41 979 94 478
3594 -0.40402384717808087 1.2055795444545152 2.5876651397703743 71 121 64 0.15467751311524872 16 541 37 577 98 120 100 541
3593 0.35123943708374611 1.4529112604669652 2.5794104713120203 59 46 36 0.40851299597850022 59 629 37 575 100 598 35 743 64 1075
13866 -0.16311210839017659 0.088404752539116921 2.0289359450381466 194 183 175 0.24538747287230112 9 796 94 443
3592 -0.34185926984131537 1.2287283230763932 2.5784661176714319 72 121 64 0.071421500534576202 35 619 37 574 63 580
13865 -0.18503070828237755 0.081366325690300306 2.0082153828634399 49 98 51 0.81315995538556252 9 511 94 442 96 1058 22 1023 71 1055 99 370
3589 0.30704768575670915 1.4041383770392868 2.5697223251620023 253 190 107 0.39596592344923592 35 710 37 559 85 1147
3588 0.15485268076530523 1.3343426120014616 2.5795659613704744 77 133 72 0.085337295823585652 12 596 37 555
3585 -0.25897963007666835 1.1523445677919733 2.5719712058089867 88 130 68 0.071198935879798572 12 363 95 595 37 540 63 530
3584 0.052494996613580765 1.2208783365971894 2.5699520603165773 78 139 72 0.23207901331676836 95 634 37 530 54 371 82 510
13857 -0.78496433959436296 0.74390859895204098 2.8392030562331869 56 101 35 0.2920428680650024 9 370 94 332 96 395 22 360 71 364 13 338 99 239 56 190
3583 -0.4298249168632719 1.0275289986360638 2.6056487539174142 86 130 65 0.14497355505249057 35 505 77 608 37 523
3582 0.16017603756587162 1.2248988471583224 2.5852296155827514 79 134 68 0.11820467693907392 12 556 37 522
13855 -0.40306811139984239 0.35269100644605172 2.8483432668911997 63 121 48 0.23413302406056094 9 367 94 323 36 358 96 318 22 306 4 191 38 209 25 181 29 121 73 98
3581 -0.16077363587968541 1.1017069144487555 2.5667914532302762 220 208 127 0.028886621803929174 34 543 37 512
3580 -0.61226345721562547 0.91157613186286379 2.651642039037104 97 152 70 0.083956716425627798 35 452 37 509
3579 -0.75893655002251537 0.83871714357384652 2.681857318971109 19 17 8 1.3814708020033195 59 507 37 503 82 711 61 696 7 316
3578 -0.14840439173336972 1.0899836896010251 2.5732701261737096 86 128 69 0.11900685298768737 62 452 37 501 78 136
13851 -0.052047683697029827 1.561613772774644 2.6007608775700959 0 0 0 0.18929352786909281 2 660 80 431 35 775 83 559
3577 0.12217679061594808 1.1506438535423156 2.5919896040749855 222 207 122 0.032399716109898807 59 521 37 493
3576 -0.61384167452642235 0.85392679786603798 2.6778465015260391 226 216 127 0.041615453186943242 59 495 37 484
3575 -0.78831132754527222 0.79415004044954229 2.6448358122865403 195 190 197 0.11727113166244291 59 485 37 473 85 495
13848 -0.8832861544373779 1.0237955765044715 2.7350150992057434 99 162 70 0.060724522748539525 41 471 94 291
3574 -0.22756896812672014 0.84709940352440771 2.6508002195531053 87 142 67 0.064060060746730554 59 466 37 461
13847 -0.77739764591351768 0.94124554440954145 2.7083634542526207 64 88 38 0.064332343543047621 19 461 94 280 96 309
3573 -0.22756896812672014 0.84709940352440771 2.6508002195531053 87 142 67 0.064060060746730554 59 467 37 460
3572 -0.73837864985425539 0.72153695244157801 2.5896418016290106 124 100 76 0.67810698582528783 59 461 37 457 49 691
3571 -0.71172267490272578 0.69931796384699063 2.536919976129985 242 236 240 0.50690143986976322 34 381 37 446 82 615 85 1078 60 1050 26 384
3570 -0.28084752791666634 0.69822270046779422 2.6468676392612367 189 170 99 0.24618195999938575 59 435 37 429
3569 -0.4034172524124961 0.60836868721780779 2.6999947310930317 173 162 89 0.26114088283789205 74 314 37 420
3567 0.40368018128113531 0.66153683766351012 2.7390560694419781 93 146 72 0.13723708946987487 59 1072 37 391 82 334
3565 0.54459312030092744 0.69331292314471127 2.5760445396300984 77 74 38 0.41453749487116004 59 364 37 355 82 273 61 296 7 314 80 275
3564 -0.044207494313420442 0.36670566971926538 2.7814377469912182 240 223 122 0.41480621295473613 59 1040 37 352 100 364
13837 -0.36503407315128239 0.5115752862629368 2.7352473320392612 71 112 46 0.12765426825891169 9 308 94 263 38 142
3563 -0.22716490100932638 0.28310394815207662 2.6502460227078934 138 126 122 0.42787661811588895 59 315 37 323 85 365 82 378 60 378 65 918 93 930 18 868 13 606
13836 -0.09282931990500802 1.4028288798613591 2.5712014392913822 0 0 0 0.13115328709642457 46 296 64 512 80 380
3562 0.49920628224168156 0.84066724064698228 2.1365759457962668 103 155 72 0.31152241766459221 2 986 37 318 70 400
3561 0.51191937689720268 0.74715096625666011 2.2129730705241117 93 92 72 0.48889460240636745 59 313 37 313 85 303
13834 -0.41224475760501633 0.78279477767552075 1.6019296841220658 0 0 0 1.1320670329566576 2 249 60 871
3560 0.24504124920499787 0.51604280385185086 2.3768282152204301 145 159 108 0.079091544152180615 59 301 37 300 82 261
3559 0.041599129701872274 0.39418908346111198 2.3180079555522677 148 158 110 0.084142736877964044 59 281 37 278 85 967 100 950
3558 0.49615324547920148 0.58127772648829323 2.2407412699028808 141 135 88 0.22097215592508188 35 286 37 275 100 974 85 272 64 891 83 863
3557 0.55599043201435761 0.55262201071224626 2.2098796813852095 115 117 124 0.89426908126903182 34 252 62 360 95 264 37 260 54 594 85 259
3556 0.18695531696267817 0.44920014586566454 2.1845515083248594 64 123 68 0.0043054535993961515 59 256 37 257
3555 0.48902643412818353 0.55988387047704269 2.1538777888367355 82 148 77 0.12961051499824644 35 263 37 253 100 940 64 864 26 214
3554 0.16187752953861576 0.43998887302361706 2.1556551043829741 69 126 71 0.075234784176807415 59 249 37 248
3552 0.082561489418183934 0.38131489754055908 2.179916297969906 70 129 72 0.009568209754211323 59 240 37 241
3551 0.5718105833908933 0.56865772836461148 2.118313767370549 97 87 51 0.22819840327549448 59 246 37 239 100 248 82 175 85 924 64 856
3550 0.58533651052173463 0.57365644199919552 2.0896121836719441 208 198 179 0.21824483308990555 77 179 37 233 82 164 85 219 60 188
13823 -0.63111682179051265 1.1160532957238871 2.6334952348632181 0 0 0 0.10939393442939371 12 241 74 543 35 551 41 365 52 477 33 486
3547 0.086955423405123772 0.3744605100654273 2.0953863290159322 61 123 69 0.044073676551509927 59 219 37 214
3545 0.34124022303122559 0.48892775279401274 2.0302509486225992 143 163 114 0.078957354265137752 35 211 37 205
13818 -0.20744843018538742 0.48594836831160643 2.7323606119724788 78 118 50 0.15435071174005735 19 331 94 232
3544 0.27589562795363787 0.20985649278723095 2.3190651818098975 82 133 79 1.4068121108924241 2 106 37 200
3543 0.014849149323361427 0.32386938825402878 2.0719278909955747 62 123 68 0.070684988441156241 59 205 37 192 100 171
13816 -0.48233098862255352 0.91248632045562139 3.2785389490255947 0 0 0 0.10433156256039207 46 328 62 255
3542 -0.15081529004377847 0.19922296512173446 2.0937874532679812 72 134 72 0.090577503924734681 77 224 37 179 100 155 59 189
13815 -0.28440710064883795 0.55936341521697652 2.7086235617012955 209 188 119 0.18959377252912213 9 278 41 362 94 229 98 150 54 169 8 431 44 362 50 309
3541 -0.11134146076772997 0.22681986013924416 2.0732723955326344 67 126 70 0.044023072039447955 59 190 37 177
3540 0.06153121151745998 0.31125881260759158 1.9625814542936499 60 117 62 0.11834268990246144 59 171 77 192 37 155
13813 -0.71747313627748088 1.1094463565098158 2.6578039287621422 245 233 155 0.13921787429984078 85 1209 94 225
3539 0.06153121151745998 0.31125881260759158 1.9625814542936499 60 117 62 0.11834268990246144 59 172 77 193 37 154
3538 0.19369933679778548 0.35357947482519314 1.8868561508292494 61 118 64 0.19756071244455051 59 163 37 145 64 118 83 90
3537 0.37503033247159345 0.41551056864324398 1.8390571505846474 65 118 63 0.0054297362350649884 59 153 37 134
13810 -0.16523168515383871 1.6972237776376182 3.0794603587690519 251 236 157 2.2261841706568668 33 343 94 213
3536 -0.033167732942863959 1.2454712081522725 0.75884603006535045 217 208 151 0.22910487466354756 74 420 37 119
3535 -0.14703965882718759 0.077649953376513814 1.8853162651388078 61 118 63 0.17740402154864435 59 85 37 93 96 41 22 34 71 40 13 35
3534 0.25785388866741443 0.30013137728386208 1.7201167603805214 208 201 147 0.41357518764569079 59 76 37 77
13807 -0.090987872244618753 1.7461143063621456 3.0346983905171396 239 232 155 2.3889826180717626 33 301 94 187
3532 0.5079197038941794 0.33724957125927818 1.701340592727109 217 221 236 1.293768283007918 59 66 37 68 7 40 75 28
13805 0.10466280638687171 1.5513898979939711 3.0556171929760856 244 232 146 1.3738313581150865 33 266 94 184
3530 0.25741758671453524 0.24280376797446482 1.6879912490880293 54 101 57 0.28312013032282835 77 60 37 53 83 50
13803 -0.68726931706842009 0.58850824747283359 2.294694467332552 85 66 42 0.20019429979297357 41 328 94 168 99 414
3529 0.43966009906885023 0.32869496571884388 1.6472575951704058 227 233 251 0.21016940951088703 59 50 37 51 100 57
13802 -0.68726931706842009 0.58850824747283359 2.294694467332552 85 66 42 0.20019429979297357 41 329 94 167 99 413
3524 0.15103488743718646 0.14856584915218823 1.6793580242115438 135 142 101 0.3880095143259536 59 842 37 35 82 891
13797 0.27164034499822304 0.79316543387055194 2.673500568207047 75 124 66 0.063960883989468587 41 189 94 104
3523 0.37445946819329867 0.26619445153614285 1.6040427946533597 107 83 59 0.23265888837578783 59 26 37 33 85 22
3522 -0.057350446476729981 0.03731600595984199 1.6774455723663444 221 226 241 0.053622102069390033 74 7 37 27 85 26
13795 -0.19311070406614225 1.2093330010774943 2.5672873547132466 247 248 161 0.25361118495873974 41 209 94 96 39 672
3521 -0.014705357500810147 0.022926157956554942 1.6705983681748551 143 135 135 0.41619327968454894 59 13 37 22 65 43
13794 -0.076388553646289381 1.2909906125159882 2.5645592519548006 219 237 149 0.38168426396306532 9 105 94 72 33 802 46 676
3520 0.005384352970074553 0.051743157880508171 1.6309752303376264 135 124 121 0.10059415397963405 59 10 37 15 85 17
3515 0.18886639615890224 1.4430622008987486 2.6018903291710869 73 128 64 0.33358361901342209 16 1517 74 1691 95 1585 34 1753 35 1774 2 1479 59 1757 74 1962 77 1788 37 1743 100 1669 54 1307 63 1410 55 1499 98 1143 31 994 39 1001 88 836 11 588 51 567 45 325 66 39
13788 0.20964166438358497 0.48800128906506229 2.3574898342571635 115 150 95 1.9154938461251918 59 2498 37 2506 100 2389 85 2457 64 2171 60 2385 79 2313 26 2292 20 2181 27 2036 7 1941 53 2052 93 2020 18 1970 65 2030 80 1688 75 1559 46 1487
3514 -0.1160878313323903 0.41074802076702016 2.7631740729671037 53 94 41 0.4078442932593635 74 2038 16 1279 77 1630 63 1430 82 1658 55 1557 55 1880 31 1366 35 2137 59 1979 12 774 54 1190 62 1207 98 1045 49 1508 41 1058 85 1047 83 173 88 136 14 423 81 541 23 390 48 424 58 224 89 310 24 327 97 212 10 193 40 329 67 354 86 348
13787 0.49389699705845697 0.68437032782833673 2.5287426663531041 186 191 205 1.5428827445419557 37 340 85 357 60 324 53 271 79 334
3513 -0.12813617419344214 0.99502959588692907 2.5841847976659467 59 103 55 0.49626331937700197 16 1711 74 1898 77 2096 2 1631 62 1648 59 2047 34 1647 35 1663 37 2039 100 1578 54 1203 63 1770 82 1720 55 1569 49 1482 43 1587 61 1714 76 1554 98 1320 8 1382 31 1280 64 1369 83 1217 46 221 39 649 44 1059 78 979 30 879 51 789 51 969 88 520 36 719
3512 -0.057607199177078655 1.3333054859391726 2.5641957489468035 39 69 36 0.22249263543300171 16 1503 62 1463 2 1450 12 1328 59 1740 31 973 83 1277
3511 0.3502677266984357 0.27501895985928893 1.6910823859671307 38 73 40 1.4901250162307127 16 2135 74 2386 95 2272 34 2462 35 2475 77 2643 2 2047 62 2044 12 1957 59 2485 35 2419 77 2601 54 1940 82 2566 43 2364 61 2587 98 1766 64 2155 60 2372 83 1906 31 1669 26 2271 7 1924 20 2163 80 1617 39 1444
3510 -0.17209446811427526 1.0164362496405839 2.579349423887086 97 122 68 0.76147528617509941 2 2033 62 2022 59 2522 16 2167 34 2446 62 2075 37 2530 55 2380 43 2463 31 1651 31 1694
3509 0.2264023385926783 0.22076128137336778 1.6853779598525123 62 123 69 0.40139009519229424 74 837 35 873 59 858 95 85 12 100 82 895
13782 -0.18212324942185587 1.5085715667988173 2.5970713425016938 0 0 0 0.2353962165110596 12 558 85 644 64 569 74 723 7 499 77 732
3508 -0.38660265257460041 1.4054408220655383 2.5953016413305221 149 176 99 0.88966747750530795 77 2741 59 2623 37 2638 82 2688 85 2557 64 2245
3507 -0.23003969073687849 0.27468113431788166 2.5648378722902176 174 171 178 1.4925180197241534 95 2340 59 2621 37 2635
3506 -0.33289507987036182 1.3068778434524806 2.5857669493581583 73 123 66 0.46603134730034029 77 2723 59 2603 37 2611 82 2683 43 2519 61 2711 76 2427
3505 -0.72900942491306209 1.1333832811282516 2.6733211829560752 165 194 104 1.0432359329340681 34 2452 77 2731 59 2596 37 2607 55 2462 49 2358 33 1941 41 1738
3504 -0.73331243897291376 0.65289796998146976 2.4027057929064797 0 0 0 1.749898111120163 34 2484 59 2566 37 2577 100 2499 35 2494
3503 0.41518186499437865 0.57871139527709092 2.2770715910022949 98 133 81 0.52235664659492975 77 2610 59 2562 37 2572
3502 0.54095439968842429 0.59538466257983924 2.2648549767875292 80 76 72 0.80104891989636218 35 2491 59 2560 37 2570 100 2452 85 2508
3500 0.049893988511176518 0.3974789165716402 2.7611886446913054 172 192 96 0.40943331067402877 59 2500 37 2509 82 2581 61 2610
3498 0.33650018432737544 0.52716642477603914 2.1975307502641432 128 150 100 1.0505235466243963 77 2609 59 2497 100 2449 37 2567 82 2573 85 2507 61 2596 60 2382 37 2503 79 2310 26 2288 20 2177 27 2030
3497 -0.098045326523180362 0.11221955808127621 1.8482651942945745 79 126 71 0.77608466835587375 95 2241 59 2488 37 2496 100 2374
3495 -0.54822568432396768 1.4777484768659506 2.7134981358179977 71 149 83 0.30340043489731439 77 2485 59 2483 37 2488
3494 -0.1889440395357887 0.27194765686907491 2.7629088991951667 0 0 0 1.5998077130689528 35 2258 59 2464 37 2468 100 2390
3493 0.50676744771347304 0.49945555996374524 1.9794220647413026 148 182 125 0.67983857567731953 35 2390 59 2458 37 2459 100 2324 85 2354 64 2109 60 2288 26 2165 20 1992 27 1921 7 1877 80 1622 75 1550
3492 -0.34685740905536344 0.22418767008299148 2.6093927745318313 0 0 0 0.75285505100159877 34 2261 59 2416 37 2351 85 1897
3491 0.080898939026494185 0.39088044238979924 2.524563223326294 65 98 61 0.9645559156064778 35 2345 59 2415 37 2415 100 2275 82 2486 85 2361 61 2509 76 2283 64 2067 60 2298 83 1786 79 2199 26 2180 20 2088 53 1982 80 1494
3490 0.51656039818460797 0.46735623272965482 1.8730444997773859 185 196 143 0.9142180082041762 35 2340 59 2412 37 2409 100 2270 85 2350 64 1967 26 2069 20 1874 27 1713 7 1719
3489 0.2103009623554048 1.7484006824685929 2.7972966994640815 54 35 18 1.3640832557240976 59 2401 37 2400 100 2315 85 2233 64 2103 7 1870
3488 -0.18407139981798956 1.6086958848751944 2.6409018269639297 99 175 78 0.35750180515997082 35 2326 59 2397 37 2396 100 2257 82 2454 64 2036
3486 -0.47104355251825264 1.2906482219495532 2.6073552633985959 238 223 137 0.25561574742522819 77 2359 59 2385 76 2102 65 1844
3485 -0.85405191680886028 1.1290078258973932 2.7256759004096045 177 194 103 0.30782552555592207 77 2479 59 2383 37 2386
3484 0.054161959352903549 1.3044311832732218 2.5827328624283274 76 129 69 0.015101100099002866 95 2137 59 2375
3483 0.084297952265563553 1.2480492098597071 2.5833321988755555 77 130 68 0.64284203087345271 16 2010 59 2365 37 2368 54 1766
3482 -0.69612817549678574 0.95626002726048653 2.6782813695653789 90 154 69 1.3907012365702955 34 2287 59 2363 37 2370 63 2186 82 2509 85 2312 49 2250 60 2313 33 1870
3481 -0.7330199204378457 0.70366684128319035 2.5786449954549089 111 84 56 0.084865641669701009 77 2540 59 2355 37 2358
3480 0.18862559359636349 0.40333364316367104 2.0229731104958586 147 156 107 0.3064994764667342 35 2254 59 2344 100 2208 64 1971 60 2171 79 2084 26 2073 20 1994 27 1836 7 1722 53 1873 93 1714 18 1668 75 1311
3479 -0.0079256785363268356 0.065293031467727344 1.6518759205880988 200 201 212 0.56303094826286015 35 2240 59 2334 37 2338 61 2395 83 1694
3477 0.1118483471204041 0.10900944349163225 1.5713774723268463 56 40 23 0.59037629453298679 35 2329 59 2329 37 2333 100 2187 85 2248 61 2390 64 1773
3476 -0.95539896901257082 1.2473662570055999 3.4629416825774859 246 254 255 1.3781464125778196 35 2312 59 2321 37 2402 82 2192
3475 -0.033863274675208374 1.5402612213526594 2.5943973160919489 70 125 63 0.048282498025691345 62 1721 59 2297 37 2302
3473 -0.90907862798030403 1.0337471930922562 2.8466853931626059 74 145 67 1.7487001266465334 77 2374 59 2282 37 2100 82 2516 43 2424
13746 -0.18375224105712037 1.4831820300691916 2.5921544193078878 0 0 0 0.089696562567936469 43 538 75 365 7 483 37 667 64 562 74 712
3472 -0.6856493207871035 1.181390406162244 2.6550469984067226 94 166 80 0.21137755564282601 77 2365 59 2278 43 2189
3469 -0.37016390107474029 1.0760147306360721 2.577411484553394 85 129 66 0.10287548610525182 77 2332 59 2256
3467 -0.48412658273677511 0.74164682490036182 2.6690786653378042 102 145 68 0.23345916052122598 35 2154 59 2234 37 2249 100 1886 85 1934 83 1436
3466 0.31429767275314641 0.4800158622452439 2.0423674917220502 169 173 126 0.33667087023222669 100 2069 7 1586 80 1365 75 1313 46 1234 20 1886 27 1719 35 2124 26 1950 79 1934 59 2197 69 1012
3465 -0.055242709897318935 0.27950312282291906 2.0756321492519003 148 158 109 0.12939280841325343 35 2106 59 2193 82 2241
3462 -0.062594752369532339 0.056369896216082689 1.7532161772356603 213 215 229 0.35961879769711014 35 1841 59 2167 37 2169 82 1941 43 1404 83 1364
3461 0.026995720801567948 0.074529048464840333 1.6501481742905586 122 117 66 1.3745872664537457 35 2080 59 2160 37 2165 7 1558 80 1343 75 1292 46 1346 11 1006
3460 0.28116992598039281 1.8250362897295074 3.3806239561287938 255 255 233 0.57946629212885215 74 1990 59 2157 100 2020
3459 -0.84644653561726457 1.1792215592139219 2.8884474475568473 204 200 206 0.85659758144751463 35 633 59 2120 37 2306 100 2140 64 2018 7 1652 80 1426 75 1367
3458 -0.3422345440450737 1.2606832093835032 2.5826185243627657 68 119 64 0.001457499838689934 77 2156 59 2102
3456 -0.053889838484146996 1.2584749638318262 2.5624883621460248 220 210 129 0.28248603407175843 34 2015 59 2085 51 958 70 678
3455 -0.2540876328837855 1.1602428025863953 2.5695367284759043 123 147 82 0.067302820247790954 2 1645 59 2079 43 1944
3453 -0.84095002684964737 0.83296158052379032 2.7737087504096776 211 186 155 1.0225288420518195 77 2155 59 2066 37 2063 100 1904
3452 -0.13844668493757276 1.1064464997239674 2.568779532372357 69 117 62 0.10600114491362653 34 1994 59 2064
3451 -0.69711915837538618 0.87202529400732698 2.6908382507340862 90 98 48 1.8575894687118679 34 1958 59 2061 85 1150 60 1616
3450 -0.82915299567558143 0.81307845140699986 2.6997618901435891 113 98 79 0.86775068348880691 34 1603 35 1625 59 2056 100 1894
3448 0.062624739445595975 1.0322181812796347 2.5917721115046493 189 179 108 0.441578961947037 35 1992 59 2045 37 1656 100 1584 85 1595 60 1029
3446 -0.62106454649620146 0.56672719498698354 2.7578844705669581 72 104 58 0.56185377908800649 34 1916 100 1877
3445 -0.66894716325857462 0.67731432113495837 2.3021450551638325 227 232 248 1.9138651779249192 59 2001 37 2008 100 1527 85 1917 77 2095
3444 -0.057390865120017058 0.58201918757922932 2.6887210963922552 178 161 91 0.2063686006587549 35 2146 59 1997 61 2027 43 1909
3443 0.48263934212091375 0.98149688541827107 2.1230534335282556 81 147 78 0.073272285749839516 2 1666 59 1989 98 1415
13716 0.38209271400851996 1.3238940955098681 3.1868337841165317 182 170 111 2.3539414171019288 19 1141 44 824
3441 -0.16484132710508992 0.34142989843849569 2.7943352552230318 79 123 55 0.2954807698567582 35 1911 59 1976 37 1991 100 1531 85 1041
3439 0.16070507433889014 0.45001932067845718 2.4828278346252874 67 121 70 0.63405612140313938 59 1959 100 1850 37 1960 85 2131 60 2040 79 1970 26 1972 20 1909 27 1739 65 1783 53 1772 93 1559
3438 0.38750553325881631 0.57911950431565784 2.2572282151687215 63 125 67 0.61038599146092776 35 1912 59 1955 37 1956 100 1837 82 1553 85 1877 64 1622 60 1811 79 1393 26 1736 20 1672 7 1387 53 1270 93 1266 18 1221 46 885
3437 0.23495668084139004 0.48337077506506154 2.1951508203598151 143 153 107 0.060693602703639327 35 1900 59 1949 37 1948
3435 -0.14324842603864765 0.27063139753144499 2.2604135721361462 65 132 73 0.10675496312398229 77 2006 59 1940 37 1941 100 1819
3433 0.4861892338171922 0.50288064091062767 1.9886410007202997 205 212 157 0.62493358115681519 34 1872 77 1510 59 1929
3432 -0.085432803525708881 0.20683125534796404 1.9637288812194167 146 152 100 0.082702675207728685 35 1861 59 1912 85 1843
3431 0.071746201418291813 0.2747120594198898 1.8927495340253517 59 115 62 0.13164448015844199 34 1844 59 1907 37 1901
3430 -0.024186429280903289 0.2104332766020823 1.887934529094899 156 160 113 0.21891132614948949 34 1836 59 1903 85 1837 65 1536 18 1456
3428 0.30604179081303151 0.28275670397309088 1.7122287439097188 198 190 136 0.18777856253233066 77 1944 59 1896 37 1888 82 1933
3427 -0.17716395333578172 -0.051907595688981838 1.7707660234939435 255 242 191 0.10407797134313257 59 1887 83 1362
3425 0.2437854784135513 0.1943286213477316 1.5910245074872307 113 92 73 1.6384702964959112 77 1934 59 1885 37 1876 100 1776 85 1810 27 1480 26 1679 82 2197
3424 0.24392539682781392 0.19071821268458586 1.5938008061160738 113 92 73 1.1971896264922408 77 1933 59 1884 37 1875 100 1775 85 1809 27 1479 26 1678
3423 0.29732695003092968 0.19600114981882802 1.5627481211126599 249 241 223 0.19102804200997148 77 2203 59 1882 37 1871
3422 0.19208655625628371 0.16161945378793782 1.5754021710035899 95 71 47 0.3509878672244669 77 1932 59 1880 37 1873 100 1354 82 1926 64 720
3421 0.02011074798629002 0.071806391446938608 1.6220325950171917 222 220 230 0.26810807766928568 35 1420 59 1879 83 1059
3420 0.2055401940795443 1.8061786911300415 3.3426991267828265 252 250 255 0.32059176374991682 35 1838 59 1870 37 1863 85 1802
3419 -0.27872875429516258 1.647792146233686 2.8448051206055678 201 204 217 0.1405342176670028 35 801 59 1864 37 1854 82 803
3418 -0.34565120521715015 1.6272778448693539 2.8255148359230033 83 67 51 0.14140842689413957 35 1824 59 1863 37 1852
13691 0.087553660692110805 0.92505779728335147 2.615727926781708 48 89 45 0.9934835120713188 52 1908 19 1774 16 2163 74 2411 95 2299 34 2495 35 2505 77 2678 2 2073 62 2078 12 1980 54 1922 63 2282 82 2645 55 2415 49 2321 43 2449 98 1754 8 1786 31 1712 33 1891 41 1651 9 1396 44 1455 78 1358 30 1210
3416 0.054157397262165605 1.68551405129615 2.9249500542692624 226 233 251 1.413175401303812 35 1409 59 1857 37 1843
3414 0.057032700725239728 1.6981439128379947 2.8202997081875636 120 97 76 0.55831169696924965 35 813 59 1853 37 2143 100 2179 64 1942 7 1699 80 1461 75 1391 46 1203
13687 0.15402541453160865 0.93973396710221668 2.6178252590649191 38 73 37 0.0019074546616032967 8 1118 44 848
3413 -0.027449366493997169 1.6713266492769621 2.7826007773767079 232 237 254 0.43711673120261102 35 1403 59 1851 37 1840 100 2008 85 2035 64 1937 60 1941 79 1853 7 1692 80 1455 75 1387 69 1145
3412 -0.014448982628071773 1.5936575198487193 2.6141716539735262 185 190 123 0.050628729985603659 74 1727 59 1831 85 1731
13685 0.53297821496992925 1.3655442187067903 3.2093298821129945 52 81 35 0.35274499137658211 76 1121 44 118
3411 -0.53258437446103124 1.4207888740190899 2.6488150796744248 202 202 124 0.14590447071666768 77 1920 59 1826 61 1856
13684 0.25711691543692838 1.6158363506982274 2.6336915855399932 108 145 62 0.62161288234254364 16 1549 34 2068 54 1333 62 1513 31 970 77 1825 63 982 82 1267 85 1704 55 1005 61 1184 60 502 33 125 44 435 30 38 50 7
3409 -0.1947923325783221 1.4731881377560256 2.5894814770595551 235 224 144 0.10010711082967184 77 1869 59 1797 37 1787
13682 0.092341670455938399 1.522486892129959 2.5823516817723418 90 140 69 0.58122243602112811 2 1860 31 1417 62 1726 98 1355 12 1749 44 749 95 2052 78 993 70 294 30 638 51 961
3408 -0.10875515467346741 1.4914717925901255 2.5886591926358693 222 214 136 0.13102358719445434 12 1356 59 1795
13681 0.33860809598229019 0.99302722538274235 2.6365182441463229 115 127 74 0.70936677945592552 2 2080 62 2088 59 2514 37 2522 54 1934 8 1783 31 1715 44 1410 63 2234 55 2357
3407 -0.03119061185743572 1.5151139968348335 2.5832563085010247 63 113 60 0.079559577639082668 35 1798 59 1794 37 1782 100 1698 64 1469
13680 0.025209475553694509 0.72521573566022712 2.6488129743456077 57 105 49 0.15735959934057492 2 1587 63 1729 31 1338 44 1098 95 1410 62 1311 16 1360 12 1218 74 1518 35 1613 54 1243 98 1085 83 1193 78 843 51 1013
3406 -0.46386995685548754 1.3638589264685856 2.6188085626372373 82 142 72 0.4444956128913683 77 1897 59 1790
13679 -0.13994079991447878 0.78720253118793193 2.6280357614971344 63 108 51 0.19377425865568562 55 432 43 446 31 306 77 436 44 241 50 240 74 378 54 266 36 195 2 318 70 153
3403 -0.11234337890268861 1.4245343263906169 2.5774515333483712 244 227 144 0.14653756217209252 95 1581 59 1772 37 1764 74 1676
13676 -0.25247293151107925 1.0020821541811873 2.5866271954049873 39 66 34 0.15436438844978012 12 861 49 1100 31 678 33 860 44 558 8 745 34 1169 51 503
3401 -0.73745588776204218 1.1977879051286968 2.6785522739758276 205 203 120 0.06508034804265575 35 1717 59 1767 37 1769
3400 -0.089562372010997079 1.3888112256196052 2.5686744341509287 73 124 67 0.093315510111860678 77 1828 59 1760
3399 0.41822743300044973 1.4804333647024366 2.6447326444117603 0 0 0 1.4312117415287897 74 1974 100 1959 35 2221
13672 -0.42092018634576733 1.0942229518946536 2.5905372924694929 88 160 72 0.52859627510957841 31 1616 44 1380 36 1151
3397 -0.13984976351822112 1.2426168687348642 2.5643416074640157 219 208 128 0.027360115813528214 35 1726 59 1722
3395 0.0062624479090292234 1.2404986746425433 2.5662880264553087 239 222 135 0.34972066015575926 12 1318 59 1710 54 1258 63 1457 16 1484 55 1540 43 1090 39 938 30 670 51 794
13668 -0.38384788153156907 0.58087898448696862 2.7145091919845092 184 161 94 0.031500733058884609 55 2218 44 1314
3394 -0.31655022597420635 0.24958565699268651 2.7922469215508023 158 151 152 0.31318949753266179 35 1006 59 1564 37 1576 100 1521
13667 -0.59213594665354641 1.2121548731024931 2.6331582434203953 0 0 0 0.30506493018074748 76 2235 85 2317
3393 -0.2952865440078179 0.24805698689397002 2.7358104191866657 160 156 163 0.26174697372275457 35 241 59 1559 37 1004 100 1011
13666 -0.33446528288622501 1.0589686700771441 2.5894745099443042 0 0 0 0.66333830103237468 2 1910 54 1740 61 2459 62 1914 63 2099 77 2452 95 2117 16 1996 8 1613
3392 0.47510258297358327 0.8314355730329781 2.1376040690822249 192 199 102 0.34747834969224595 34 1049 59 1558 37 1547
3390 -0.27859273049791716 0.24163262333018701 2.6908183324645756 167 163 169 0.2818196581702806 34 217 59 1554 37 1553 100 1497
13663 -0.095482765421451954 0.64792785829981792 2.6702585170464777 157 144 84 0.47642907037545873 49 1967 95 1951 44 1226 43 2116 63 1951 74 2048 98 1486 8 1639 62 1894 16 1964 78 1221 30 1088 51 1130
3389 -0.086704800532741239 0.34308922980390799 2.6024287102843027 180 182 194 0.425099911912517 35 1529 59 1553 37 1551 100 1496 82 1103 85 1540 61 1080 43 385 60 1004 26 965 20 943 79 1005 27 296
13662 0.32295262159981719 0.96851528887296523 2.6472104367820175 199 183 117 0.031799702941912561 63 1917 44 1182
3388 0.51144843838093135 0.61055536127860066 2.3864234459229552 119 156 110 0.3788545230486407 77 999 59 1547 37 1543 100 1503 85 1504 60 951 20 917
3386 0.22865758758443963 0.49390005378866392 2.2572716698889121 122 150 99 0.081169003946953477 77 1557 59 1528 37 1525
13659 -0.3783870150999214 0.54533170265309461 2.7198289143973495 50 87 38 0.069428321325903597 55 1635 44 1131
3385 0.47782025896347186 0.55752452065951164 2.1621203036539538 76 142 76 0.63850739696258341 34 963 59 1521 37 1504 100 1829 85 1461 64 1612 60 896 79 888 26 1391 20 1313 27 1519 7 1383 80 1221 75 1134 46 1100 39 1106 11 889
3384 -0.077265571714163914 0.31998894559657248 2.2641480945621772 151 162 113 0.19983160688572793 77 1564 59 1516 37 1513 82 1584 76 1460
3383 0.67896492124035246 0.39145703266939075 1.8231481531687606 255 255 255 0.61240146447780752 59 1448 37 853
13656 -0.12297402728872778 0.6508715082996569 2.6727515520288661 49 82 36 0.57686038385134908 95 1733 44 1112
3382 0.40034507275712422 0.34787281468244458 1.7435842346071224 44 75 39 0.37239475316748671 77 1471 59 1440 64 1212 7 1074 75 873
13655 -0.51886948659109744 0.84286755641434785 2.6494589572651774 56 100 47 0.23647786613447347 52 1512 44 1094
3380 0.049201940727861194 0.17949091616539867 1.7664078260252454 163 162 111 0.18835731317507046 77 1488 59 1428 37 1420 100 1374 35 1437 85 1381 60 1333 26 789 20 785 93 747
13653 0.11998315166222641 0.44033255260442677 2.3255299070128523 0 0 0 0.078547056005191546 27 1267 93 1278
3378 0.53125619407623692 0.3843055114167746 1.6691203059651103 227 229 242 0.42838428670516915 34 1430 59 1426 37 829 74 872
13651 0.51369316671175269 -0.065453987267303934 2.8231049040440483 0 0 0 1.7607081631100443 60 1822 100 1465
3377 -0.030965530370451855 0.10769249821127407 1.7853367551132726 57 110 60 0.399236837708834 77 1957 59 1420 37 1416 63 1675 82 1949 85 1377 55 1802 49 1710 43 1816 61 1930 76 1741 60 1337 79 1313 20 1245 26 792 53 1190 65 1176 93 1198 18 1137 52 1105 19 1014 41 933
13650 -0.3813146921364518 1.1646607973501688 2.5848244573187156 222 211 134 0.53721012841529625 31 1237 44 1044 36 874
3376 0.43951519836294661 0.3011645075148992 1.603588238669541 150 149 159 0.14850906296996269 77 1458 59 1409 37 1405 100 1360
13649 0.54610727617475963 0.84683983941686558 2.1280014353027412 191 232 144 1.0703546519763325 55 1772 44 1041 61 1536 50 924
3374 0.21010979156774579 0.094877322844419062 1.5226440464355522 81 58 37 0.53615321597115739 74 1749 59 1391 82 1919
13647 -0.48319218905308758 0.3981909409712342 2.2136724604204319 71 125 56 0.001999356781356783 55 1624 44 975
3373 0.25356028901108896 1.7822334765962418 2.9738860140122951 0 0 0 0.001571405396275593 59 1385 37 1383
13646 -0.067179187208355223 0.54449689520420452 2.7124801277939605 56 85 38 0.29064295883733182 33 1232 44 974
3372 -0.04330814809969822 1.6607390947093144 2.7730949919514551 114 111 110 0.64051837317139915 35 805 59 1369 37 1363 100 1748 85 707 64 1515 60 639 79 1160 26 1180 20 1117 27 1414 7 1318 65 490 53 1035 93 509 18 465 75 1259 69 602
3370 -0.13098219000034067 1.5375056512640861 2.5995582021994004 69 123 63 0.29290339646095176 35 1372 59 1338 100 1265 2 1097 83 992
13643 -0.38538921145066279 1.2006794458874399 2.5877197134288368 0 0 0 0.13664810087623663 16 1466 37 1729
3369 -0.59674888239970691 1.3805612182859763 2.6712552823594309 107 164 82 0.39045890692811336 77 1428 59 1337 82 1890 43 1306 61 1401
13642 -0.037759117040703637 0.60920354586981029 2.6809863686432922 184 164 100 0.14571035323772047 8 1226 44 949
3368 -0.46587863472715352 1.4101835382460157 2.6241754166687112 246 225 137 0.056541983978098592 34 1297 59 1331
3367 0.23023358675459901 1.5865394591970285 2.6258187820382459 70 127 67 0.15839536166187465 35 1383 59 1323 37 1310
3365 -0.46566096105045784 1.3263200979419785 2.608484157203367 219 208 128 0.44854313684232255 77 1888 59 1302 85 1217
13638 0.059433927869000411 0.30194097587471147 1.9465546441221317 0 0 0 0.038490950378135019 37 1461 85 1420
3363 -0.44859706022756951 1.3236615410066439 2.59684330372122 159 175 101 0.21225036324407542 77 1385 59 1287
3361 -0.025345770569783731 1.3363828782198564 2.5661665518191561 68 123 67 0.0047484049824595576 35 1325 59 1258
13634 -0.36614455037877991 0.85295308574296991 2.6269383845956424 60 101 48 0.071001427040468273 33 901 44 902
3360 -0.04225016289012485 1.3258123675270632 2.5644736673066642 75 125 68 0.13935851135541788 2 1055 59 1256 54 837 98 720
13633 0.23934353408321044 0.81176199954513673 2.6576111717190387 41 80 40 0.020716153633660098 8 1171 44 898
3359 0.35059827134302796 1.4251670565038486 2.5554351931073076 103 85 64 0.76472985630751433 77 527 59 1249 100 1652 82 476 64 1694 60 421 79 409 7 1667
13631 -0.08194287236300489 0.89848145625343256 2.5987331680686734 47 74 39 0.091852489477159294 8 1132 44 870 30 714
3356 0.12143930647664852 1.2958959732506303 2.5732636235680713 77 130 69 0.025065388298772286 74 1232 59 1232
3355 0.1052618711221714 1.2634604718601639 2.5821952678730562 73 132 68 0.040136598060199286 35 1308 59 1225
13628 -0.22830906757147182 1.0585664658021439 2.5763464524676327 176 171 109 0.038490994378177198 54 1181 44 827
3354 0.36736881999171567 1.360270121629219 2.4925960282473665 100 77 54 0.098942026420017801 77 1228 59 1217 37 1185 100 1189
3353 -0.80580424997496858 0.90964258544188681 2.7359649840919591 78 122 52 0.26091002902513633 35 1644 59 1208 37 1201
13624 -0.52744840390540859 1.2376923390576295 2.6150389118601489 222 214 137 0.15855722055264079 8 1037 44 805
3348 -0.48649390678819682 0.94408115536805159 2.6204895427273041 78 130 63 0.1704094335980347 16 973 35 1192 59 1179
13621 0.49989783507117297 0.98045888890737576 2.1154844954324932 198 242 162 0.29206950624039651 82 1016 44 776
3346 0.36089042742727789 1.1507694485448816 2.6223058092234366 173 165 105 0.51437361970196394 16 1462 59 1173 95 1511 37 1139
13619 0.4244424035687 1.2245315895237494 2.1745080647420045 255 255 255 0.65397252059752953 61 1017 44 748
13618 0.26207572749902502 1.5562545446077696 2.6223768183373437 173 218 127 0.47483097802303659 63 1728 44 745 50 706
3344 -0.6338723036343048 0.69948258345820058 2.7179660437043212 77 127 62 1.332005135195611 62 777 77 557 59 1141 37 1120 54 660
3343 0.12948023750890603 0.88987521009703952 2.618330320698365 134 127 80 0.21548985546376712 35 1182 59 1117 37 1095
13616 -0.18347728560917248 0.49447306197361418 2.730072410982467 66 89 42 0.10134259258483175 16 210 63 404 44 702 55 452 43 470 49 492
3342 -0.61480918380230942 0.62041640461266068 2.6989736472807997 105 140 52 1.5220976515814402 34 1065 59 1114 37 443
3341 -0.20693025117867195 0.67754359756854665 2.657553849400411 85 145 65 0.064628353067814143 35 1114 59 1099
13614 -0.018935603429240794 0.59138484541104541 2.6818242349270669 175 159 97 0.14231315639424785 54 810 44 673
3340 0.42113032187086641 1.098241379812702 2.1253957542941766 252 241 209 0.1824174441014221 34 1148 59 1091 37 1051
3339 0.45045314752576071 0.73197462182418949 2.7279998641126766 145 155 89 0.23094862039427175 77 1613 59 1085 49 1387 62 1639
3338 0.44927574777679352 0.73461441694590468 2.7231411906392582 145 155 89 0.28150012781041972 34 1571 59 1084 37 1054
3337 0.33357430480540079 0.57277182749943467 2.7465585854344061 209 210 115 0.23998985569493167 35 1093 59 1056 100 397 82 331 77 1050 61 373
3336 -0.69234376201145731 0.58825593202952609 2.2323285612910744 255 255 222 0.2655820694749611 35 1021 59 1054 37 1028
13609 0.01198660804413334 0.37905518002664229 2.3326833145339094 0 0 0 0.11145863996474112 20 895 79 288
3335 -0.26261897072373186 0.29047505802231222 2.8249902765996713 101 107 63 0.56495671013888726 74 1432 77 1637 59 1042 37 1584 85 1050
3333 0.64447348767395707 0.50921822927411042 2.0098311917797456 165 164 174 2.1271614076372591 35 973 59 929 85 177
3332 0.19350628871981981 0.39727866720628341 1.9904521288493757 61 122 67 0.18783405167555872 77 960 59 927 82 962 55 135
3331 -0.26879748714144747 0.093545388565769466 2.1594623145497103 128 99 62 0.36655679529821128 74 60 77 232 59 913 82 1012 55 348
3330 0.5472573596099829 0.43848542851845446 1.8346699686813643 170 176 132 0.25355569589952631 35 928 59 895 37 861 100 857 85 116 64 788 7 689 80 604 75 552 39 842 69 381
13603 -0.67729286446877746 1.0577893725169112 2.6464815497343066 104 173 79 0.089726987355488411 33 1314 44 567 50 503
3329 -0.015461192827330619 0.14946329194639663 1.8007717669219105 69 125 66 0.293498608209597 77 915 59 869 100 819 85 847 61 902 65 751
3328 0.14459789129065756 0.21967162733320061 1.7297117147322618 142 152 103 0.013785354003580658 77 898 59 867
3327 0.26947105560010015 0.26438711575340235 1.70346113436543 182 179 132 0.18130971396249185 77 888 59 866
3326 0.1627109166916155 0.21537317603681522 1.7295428738805758 69 121 66 0.1231007089191532 95 89 59 865
3325 0.25484770649631772 0.206821438858623 1.6691496233269905 145 152 111 0.03964971775496437 34 821 59 847 61 855
3324 -0.13952663698303414 0.024789751225934555 1.7373244742472094 206 207 220 0.64647945846599986 74 13 59 843
3323 0.0097529567270213443 0.073809121547133719 1.6554229596394077 201 196 203 0.30278625989696983 35 12 59 837 100 15 85 813 64 15 60 35 79 41 26 30 20 20 7 12
3322 0.10015614739874726 0.09837244784746095 1.5963839335102918 140 111 86 0.37564303874239457 35 11 59 829 37 11 100 6
13595 0.36581947850496549 1.0339211724893569 2.6417105700259302 191 175 116 0.18705056364984249 39 723 62 1036 44 543 88 633 5 425 92 110 6 164 32 333 15 325 45 369 42 242 72 224 89 216
3321 0.19497071342452715 0.12827345529115475 1.5203708011998889 34 17 5 0.47979469278481596 35 1418 59 827 37 791 100 787 85 802
13594 0.50455751897902124 0.80972579929867428 2.1483413401135651 250 235 135 0.20820387893232289 8 788 44 532 30 540 70 414 50 474
3320 -0.24006727027473662 1.6667454207234862 2.8853429807119233 118 98 78 0.14142522502406901 35 811 59 814 37 773 100 1342
13593 -0.021251409534106515 1.1552553075741074 2.5705874757043246 63 108 49 0.030727690956558001 34 1209 44 523
3317 -0.33437944091444727 1.5012088406553192 2.6158148891355619 88 150 73 0.051677496074107654 34 742 59 754
13590 0.35749042088409394 1.2384391970809645 2.6242327515250996 61 88 41 0.14728457362148897 55 956 44 491 50 84
3316 -0.19755229617119513 1.5385782326157125 2.6073293741078798 81 138 68 0.11199862051235586 74 731 59 753 82 718 64 590 100 672 7 506 80 417 75 381
3315 0.044536788256306636 1.5922431434807365 2.600836604317299 74 132 63 0.066150555738223565 77 690 59 748
3314 0.044720312917545697 1.5918823157623492 2.6025291267411275 74 132 63 0.015554374540818049 74 759 59 747
13587 0.21921062741401234 1.2663580188313412 2.5892101208009204 208 197 120 0.1980781505545369 8 687 44 484 30 459 50 71 70 362
3313 -0.66762260091567216 1.3205170044304018 2.6800137403396529 96 159 75 0.11314769453611997 77 787 59 729 37 684 85 678 61 763
13586 0.2122031429055673 1.2864562187300974 2.5884948086063337 91 162 72 0.10390688188022541 8 1031 44 481 50 443
3312 0.28227343363809149 1.595331225702018 2.632941349945416 97 156 82 0.12562874777006292 34 753 59 724 78 272 51 171
13585 0.2122031429055673 1.2864562187300974 2.5884948086063337 91 162 72 0.10390688188022541 8 1032 44 480 50 442
3311 -0.89585623715031393 1.1601851654317166 2.8760031287706398 211 209 219 0.54268843457878069 35 618 59 717 37 681 85 1754 60 1965
13584 0.033998776982568389 1.3156462484437308 2.5673930538006964 132 156 89 0.19615624143121113 39 712 44 476
3309 -0.028906976849127217 1.4814710088796927 2.5821404294902841 84 124 68 0.2478518243356633 62 644 59 699
13582 -0.077747383781823387 1.4686270390573959 2.5795835574945567 121 197 96 0.12078129810745696 98 715 44 455
3305 -0.3183128586790957 1.3422829026314647 2.5833892188473051 69 120 64 0.28318816082659359 95 683 59 670 63 585 82 681
13578 -0.4737799520654562 0.34208860107560529 2.2232488514514155 64 104 51 0.0017635626892651096 82 362 44 384
3303 -0.29665456765321652 1.3418618801389852 2.5798672056655616 67 120 64 0.14904662722028264 16 605 59 665 61 604
3302 -0.29642806099273566 1.3421405367462607 2.5785850162124637 67 120 64 0.24990652837913246 16 604 59 664 37 614 100 574
3301 0.079540712755579238 1.3495519206622881 2.5685203332044888 240 224 141 0.30192571165830617 62 612 59 615
13574 -0.63077875466485556 1.117426711906325 2.6337187502235611 0 0 0 0.12800284564038364 2 407 85 577
3298 -0.56050031958517776 1.1082912521430017 2.6197639124364147 238 217 127 0.13252343485395446 95 569 59 594 61 672
13571 0.47897659083098021 0.42673724369463151 1.8120693029272124 0 0 0 0.04619958291639556 27 66 75 55
3293 0.30026983117169337 1.2888432838126251 2.5663172303277575 63 69 29 0.41111747536251064 16 592 95 651 31 711
13566 -0.39978846564228609 1.1858526870837549 2.5858264265928788 0 0 0 0.19639135889086773 34 609 82 657 95 622 2 493 16 535
3292 0.005555798564588957 1.181428643649467 2.5710864067966108 245 224 135 0.06787539365785851 95 613 59 548
3288 0.14467660100890778 1.1676296162760655 2.5870144142508544 227 212 125 0.14713585311087443 77 497 59 528 37 499 49 297
3286 -0.31539964721650909 1.0235024067900589 2.5865622661853087 76 125 64 0.13555819727850141 16 445 59 518 8 201 31 147
3285 -0.61223696361565982 0.91164824207525452 2.651622817082425 91 148 69 0.066635909778042735 35 451 59 517 37 508
3284 -0.24984940734582348 1.0336650238694578 2.5816426713120637 89 130 67 0.17675298778662446 77 561 59 511 63 505 8 192
13557 0.22764038795144292 0.44179827134652166 2.0760360406531131 0 0 0 0.010591500488640257 64 190 80 97
3282 0.13003217820226562 0.36067720438782525 4.1987960888826983 87 131 68 0.80678407041938693 34 390 59 504
3281 -0.61489548160495899 0.85992263067342445 2.6653044177690175 240 225 132 0.075189813274936151 35 429 59 494 37 483
3280 0.2741832591515021 0.37419025425989921 4.1466213267328476 93 136 74 1.062985982160209 34 385 59 492
3279 -0.20799973813009529 0.98450346244912568 2.5858723970004558 230 213 125 0.043920132193328153 95 490 59 489 16 434
3278 -0.44167963900560303 0.8215169635977484 2.6376322696576566 143 168 87 0.0040451566507901573 35 407 59 474
3277 -0.22753715959147894 0.83444202891465202 2.6173158770267255 83 137 64 0.1174515964649278 35 418 59 457 55 490
13549 -0.52556222071084735 0.80144638066567886 2.6620813887814223 66 104 51 0.12262622967017052 49 633 44 260
3275 0.50694128401381056 0.68237421619429384 2.7635070776021884 80 125 50 0.15640610290133078 77 1596 59 397 37 392
3273 -0.55609393789117034 0.55617667145563965 2.2789334568800683 132 117 98 0.20928041827918897 35 268 59 355 37 358 85 372
13546 -0.47062424204853481 1.3524197704440919 2.6155532724658226 0 0 0 0.1101049161979922 59 707 61 686
3272 0.3299677442340303 0.58265952247518626 2.571620481001121 74 77 38 0.41771754631633651 35 331 59 340 37 336 100 1042
3271 -0.30940248211697918 0.25350434232106828 2.7561739884788286 101 84 51 0.28150163998410804 35 244 59 330 37 333
13544 0.32557188060112613 0.77991239856993522 2.6811189200827519 158 150 98 0.12429897983144045 54 494 44 223
3270 0.47301830243174159 0.61688599963199464 2.4803781999290027 147 155 171 0.90205929584694911 95 324 59 329
3268 -0.54121814551867287 0.49597295110039719 2.2210440433903531 64 122 66 0.19110648682835193 34 265 59 323 54 37 2 110 98 36
3267 -0.073879952521902603 0.35383534999619004 2.6146494708118646 92 86 45 0.57510750544179157 35 261 59 319 37 988 100 329 82 1105 85 359 43 387 61 1081 76 1052 64 297 60 1005 26 972 20 947 27 877 7 786 75 932 80 1019
3266 -0.28285882395304818 0.24812767170450239 2.644434457567264 89 73 40 0.82392830482951795 2 75 59 311 37 987 100 997 54 147 62 54 85 1546 64 1306
3265 0.10706500288013276 0.41949191674747083 2.5127435102631557 151 152 165 0.22211944091044308 77 287 59 307 82 300 85 335 76 269
13538 -0.40430970099142655 0.88090017941847354 2.6271094878566803 254 235 135 0.32388630533435209 98 112 44 206 12 218
3264 0.47039373053361627 0.60985249871836955 2.3430816996694022 67 133 77 0.095592411376683062 35 310 59 302 37 301
3263 0.54347728718384369 0.68991801744566272 2.1964410561990144 90 76 36 0.44433682979363531 62 1400 59 299 54 1388 61 192 44 845 30 783 31 1173 49 808 51 706 78 681
3261 -0.34271217445552427 0.2561464772451359 2.2716727503565326 221 207 206 0.30391971396971657 34 169 59 260 54 106 98 93 31 425 62 45 12 47 78 107
3260 0.27672152762444363 0.25590110644886843 2.4748099867662994 67 128 71 2.2344833324885256 16 125 59 257 37 256
3259 0.57272071736976882 0.56239029632860094 2.1013344501537685 108 96 68 0.21957816455662454 77 181 59 238 37 234 64 224 100 926 7 190 80 144
3258 0.51024962220525105 0.5382802196614016 2.0973335625416625 94 162 89 0.11374546749370081 35 994 59 234 83 832
13531 -0.13816405882313695 0.8770986723699653 2.6029050541302658 153 146 93 0.14873090843738768 63 422 44 192
3257 0.087759461480566445 0.11924458796147308 2.5070648997918683 75 134 77 2.6917925369344267 16 91 59 232
3255 0.088494405547192595 0.37115372715815892 2.1006139162791606 64 126 68 0.013392880058867454 35 180 59 218
3254 0.45382668983009922 0.50656192049358417 1.9994678705325286 70 131 71 0.018562266804858008 35 213 59 212
